# .PCD v0.7 - Point Cloud Data file format
VERSION 0.7
FIELDS x y z
SIZE 4 4 4
TYPE F F F
COUNT 1 1 1
WIDTH 397
HEIGHT 1
VIEWPOINT 0 0 0 1 0 0 0
POINTS 397
DATA ascii
0.040748999 0.11349 -0.0054216017
0.041273002 0.11425 0.0017446983
0.040916 0.11338 0.010660999
0.032623 0.11499 -0.026422001
0.024254998 0.12284 -0.024545003
0.025069999 0.11316 -0.034136999
0.027036998 0.11773 -0.028860003
0.017604997 0.12234 -0.02675
0.019108998 0.1123 -0.035750002
0.031279001 0.12307 -0.015982002
0.032798 0.12438 -0.0079813022
0.035493001 0.11674 -0.018101001
0.037537999 0.11758 -0.0086687021
0.026132001 0.12536 -0.018080002
0.02619 0.12865999 -0.0080861012
0.029670998 0.12146 -0.022750001
0.033183999 0.12456 0.0018688986
0.032519002 0.12376 0.011167998
0.038104001 0.11937 0.0020062984
0.037427001 0.11816 0.012319998
0.026782 0.12879001 0.0016658988
0.026218999 0.12723 0.011970999
0.01928 0.12828 -0.016484
0.018415 0.13102999 -0.007092101
0.017095 0.13134 -0.0014615007
0.019265 0.12886 0.013820999
0.040077001 0.11202 0.017249998
0.051046003 0.13415 0.074556001
0.041090004 0.14396 0.065971002
0.043266002 0.14545 0.071924999
0.042195003 0.13624001 0.065509997
0.047518004 0.13767 0.071111999
0.051194005 0.13416 0.079527996
0.042793002 0.14428 0.080421001
0.046806004 0.13779999 0.082672
0.042222004 0.13514 0.088129997
0.050729003 0.12347 0.066325001
0.052364003 0.12661999 0.072398998
0.050881002 0.11973 0.066091001
0.052295003 0.11811 0.072012
0.043831002 0.12627 0.062432997
0.048875004 0.12998 0.068325996
0.044399004 0.11811 0.063093998
0.048410002 0.11322 0.071300998
0.052034006 0.12740999 0.080514997
0.051116005 0.1191 0.078179002
0.049001005 0.12609001 0.085216001
0.044589005 0.12621 0.089538001
0.047970004 0.11661 0.082658999
0.044570003 0.11784 0.089535996
0.030132001 0.15248001 0.056499999
0.026915003 0.15312999 0.055516999
0.00017688159 0.17197999 0.036249999
0.00022189165 0.17197999 0.037749998
0.00051958155 0.16935 0.036249999
0.0018682014 0.15711001 0.033176001
0.011273002 0.15449999 0.051913001
0.0030522018 0.16642 0.041707002
0.0041988022 0.16414 0.049467999
0.0054879021 0.15669 0.041892
0.0080283014 0.15877999 0.051224001
0.033161003 0.15317 0.062417001
0.033701003 0.15319 0.071670003
0.027405001 0.15524 0.062542997
0.027645003 0.15549999 0.072109997
0.032268003 0.15268999 0.078662999
0.026085004 0.15374 0.081569001
0.022135004 0.1523 0.087250002
0.010325002 0.15568 0.057250001
0.0073225023 0.1575 0.057888001
0.019215005 0.15222999 0.088500001
0.030850003 0.14616001 0.056129001
0.032127004 0.13555001 0.054705001
0.026275001 0.14714 0.054143999
0.021909002 0.13234 0.046624999
0.025787001 0.13694 0.05139
0.030773001 0.12238 0.018277999
0.035209 0.11643 0.021655997
0.032850999 0.11566 0.031920999
0.024562001 0.12421 0.021347998
0.023293002 0.12349 0.03241
0.028745001 0.12094 0.024868999
0.028229002 0.12039 0.031746998
0.034968004 0.12685999 0.052912001
0.032997999 0.11564 0.041671999
0.034582004 0.1168 0.052037001
0.024082001 0.12488 0.042495001
0.028108003 0.12736 0.047945999
0.028633002 0.12035 0.042420998
0.028871002 0.12024 0.047660999
0.00053950155 0.1513 0.035964001
0.013881002 0.14740001 0.050597999
0.018289002 0.13293 0.046374999
0.016269002 0.13856 0.049125001
0.0054003019 0.14915 0.042975999
0.0086783022 0.14658999 0.047965001
0.018077001 0.12630001 0.022926001
0.017804002 0.1259 0.031583
0.016650002 0.12796 0.041733
0.036168005 0.14698 0.061482001
0.038328003 0.15026 0.071728997
0.035999004 0.13680001 0.060525998
0.035955004 0.14823 0.082618997
0.033779003 0.14449 0.087824002
0.037774004 0.13828 0.089000002
0.028208004 0.15095 0.085662
0.025869004 0.14725 0.089601003
0.023690004 0.13748001 0.090681002
0.038992003 0.12924001 0.058722001
0.037685003 0.11512 0.060075
0.038703002 0.12767 0.091812
0.039619002 0.11657 0.091727003
0.025211005 0.12721001 0.093163997
0.024399003 0.12067 0.093938001
0.019860003 0.14522 0.091582999
0.019817004 0.13666999 0.090929002
0.018959004 0.11635 0.093093999
0.041418001 0.10286 -0.024948003
0.040463001 0.092626996 -0.033599999
0.043311998 0.096386001 -0.027420001
0.041034002 0.086911 -0.033920001
0.045084 0.086837001 -0.028156001
0.040854 0.078603998 -0.033810001
0.045058999 0.076874003 -0.028125001
0.05088 0.093278997 -0.014500001
0.052315 0.094729997 -0.0074817021
0.043138999 0.10535 -0.017407002
0.042968001 0.10633 -0.0079536019
0.047253001 0.097194001 -0.018511001
0.048078999 0.099322997 -0.008643602
0.053906001 0.095697999 0.0020196976
0.053862002 0.095169 0.011445997
0.043455001 0.10691 0.0018749981
0.043019 0.10688 0.011874998
0.046647999 0.10071 0.0017621979
0.045915999 0.10008 0.012497998
0.051642001 0.085894004 -0.016381001
0.055227999 0.086910002 -0.0081167025
0.052372001 0.076954998 -0.017644001
0.055535998 0.076853 -0.0081250025
0.049006 0.088169001 -0.020575002
0.049563002 0.075721003 -0.022445003
0.056843001 0.086848997 0.0017930976
0.057009 0.086770996 0.011942998
0.057803001 0.076862998 0.0019566976
0.057022002 0.076963998 0.011874997
0.040033001 0.067541003 -0.03325
0.042952999 0.066829003 -0.028149001
0.042587999 0.057829 -0.026761001
0.040428001 0.047460001 -0.023571001
0.051639002 0.067418002 -0.015832001
0.055006001 0.066901997 -0.0080431029
0.050416 0.058885999 -0.013984002
0.052949999 0.056887999 -0.0080973022
0.048300002 0.065958001 -0.020566002
0.047878999 0.056538999 -0.018594002
0.049688999 0.052652001 -0.012875002
0.056503002 0.066711999 0.0017851975
0.055015001 0.066885002 0.011784997
0.054409999 0.056597002 0.0018749976
0.052714001 0.057054002 0.011839998
0.049614999 0.052469 0.015687998
0.051259 0.049929999 -0.0066154022
0.043320999 0.046654999 -0.018088002
0.046622999 0.045437001 -0.0088410014
0.043083999 0.039719 -0.017688002
0.045373999 0.039515998 -0.0081250016
0.051720001 0.049844 0.0016110978
0.050903 0.046773002 0.012449998
0.051036 0.039778002 0.013850998
0.047587 0.044874001 0.002029398
0.048661001 0.046859998 0.011652998
0.047339 0.039606001 0.0018610979
0.049415 0.039579999 0.0091544986
0.022519998 0.094028004 -0.043660998
0.031831 0.10473 -0.034642
0.036339 0.1072 -0.028343001
0.034843002 0.096551999 -0.036339
0.038504999 0.099372 -0.031732999
0.026780998 0.10668 -0.036998
0.029589998 0.11108 -0.032875001
0.026662998 0.097131997 -0.040938001
0.024240999 0.086465999 -0.044153001
0.020428998 0.072221003 -0.053750001
0.023593998 0.076573998 -0.045159999
0.035459001 0.086663 -0.038036
0.035657998 0.076624997 -0.037861001
0.028253999 0.087237 -0.042215999
0.028579999 0.076747 -0.042355001
0.015268998 0.096228004 -0.043875001
0.008644498 0.096796997 -0.044374999
0.017654998 0.1061 -0.039545
0.017236998 0.10009 -0.042312998
0.015603998 0.087416999 -0.045405999
0.017943999 0.072639003 -0.055117998
0.017433997 0.073760003 -0.048721999
0.009421098 0.086297996 -0.045917001
0.039062999 0.1096 -0.019433001
0.039648 0.11058 -0.010970002
0.031336997 0.057153001 -0.046657
0.024121998 0.066335 -0.056079
0.026297998 0.06701 -0.048168
0.024901997 0.057252999 -0.056054998
0.029136999 0.056662001 -0.051162999
0.036122002 0.067032002 -0.036913998
0.039903 0.064719997 -0.033
0.033119 0.056506999 -0.038004
0.038484 0.054915 -0.030629002
0.028356997 0.066382997 -0.041875001
0.029631998 0.060880002 -0.041434001
0.031242998 0.049904 -0.044921
0.022043997 0.050167002 -0.054634999
0.025844999 0.047370002 -0.048280001
0.031456001 0.048347 -0.037973002
0.035990998 0.047061 -0.028053002
0.034150001 0.040346 -0.025595002
0.028277999 0.043508999 -0.038454998
0.029252999 0.043278001 -0.032031
0.025143998 0.040335 -0.036580998
0.026846997 0.039321002 -0.030190002
0.017360998 0.067891002 -0.059333
0.019709999 0.071451999 -0.046500001
0.018339999 0.057746999 -0.059562001
0.019172998 0.049199 -0.055636
0.019180998 0.045063999 -0.050500002
0.039776001 0.047803 -0.023000002
0.038795002 0.038860001 -0.022389002
0.052205 0.093900003 0.019544998
0.042059001 0.10618 0.021461999
0.041228 0.10395 0.031026999
0.045194 0.097723 0.022520998
0.043878 0.097025998 0.031857997
0.040891003 0.10412 0.043262001
0.040972006 0.10404 0.052154001
0.042424001 0.096943997 0.041875001
0.043563005 0.096966997 0.051918995
0.054767001 0.086672001 0.021488998
0.050283998 0.083086997 0.026999999
0.054365002 0.077248998 0.021069998
0.048981 0.089634001 0.026010998
0.044169001 0.087035 0.031892996
0.047102001 0.074891999 0.025624998
0.042176999 0.076899998 0.031970002
0.043295 0.086953998 0.041823998
0.044933002 0.086843997 0.051824998
0.042564001 0.076728001 0.041917998
0.042992003 0.076876998 0.051848996
0.041164003 0.10393 0.061338998
0.044294003 0.10976 0.072672002
0.043327004 0.096825004 0.061783995
0.041397005 0.096202999 0.070058003
0.044343002 0.11091 0.080439001
0.044520006 0.086723998 0.061926994
0.041908003 0.087352 0.070344001
0.042178005 0.077489004 0.061409999
0.041024003 0.080144003 0.068579003
0.052388001 0.067731999 0.019044999
0.050809 0.058908999 0.017741999
0.045226 0.066381998 0.023547998
0.040929001 0.067795001 0.033989999
0.045164 0.056549001 0.021689998
0.040406998 0.060706001 0.036111001
0.041391999 0.066950999 0.041230999
0.040357005 0.070955999 0.048588
0.040445998 0.059464999 0.0403
0.052258 0.044964999 0.021919997
0.051088002 0.043584999 0.029186998
0.053521 0.039825998 0.021918999
0.052133001 0.039749 0.030330999
0.046725001 0.049846999 0.021997998
0.045187 0.046847999 0.031910997
0.047529001 0.039753001 0.035275996
0.041593999 0.044822998 0.042016
0.043498002 0.044707 0.051939998
0.043582 0.039326999 0.041927997
0.046212003 0.039252002 0.051856995
0.042862006 0.044240002 0.059452996
0.044363003 0.039087001 0.060764994
0.039129 0.11038 0.024272999
0.037951998 0.10878 0.032379001
0.037969001 0.10853 0.041152
0.038258005 0.10906 0.051697999
0.038274005 0.10877 0.062091
0.037516005 0.10596 0.071654998
0.038347002 0.097746 0.074634001
0.032308005 0.10508 0.079120003
0.033592004 0.096758001 0.080202997
0.025985004 0.10568 0.083779998
0.020825004 0.10314 0.087292001
0.027810004 0.097079001 0.085210003
0.022985004 0.096455999 0.088082001
0.038816005 0.086039998 0.075159997
0.038970005 0.073454998 0.064576998
0.036413003 0.076416001 0.072278999
0.028730003 0.072563 0.076375
0.034290005 0.087076001 0.080031
0.032477003 0.079370998 0.078919001
0.026974004 0.086686 0.084834002
0.022611003 0.089233004 0.087890998
0.025829004 0.077169001 0.081047997
0.018635003 0.10784 0.086392999
0.017264003 0.10492 0.087672003
0.017610004 0.098483004 0.089332998
0.018607004 0.083067 0.086374998
0.018947003 0.089185998 0.089179002
0.017794004 0.076109 0.082878999
0.0071175038 0.074674003 0.082500003
0.039321002 0.064140998 0.026436998
0.038942002 0.066129997 0.030034998
0.038881999 0.056531001 0.026130999
0.037742 0.056657001 0.031663999
0.039166003 0.064540997 0.045715999
0.036733005 0.066868998 0.051959001
0.039026 0.055544998 0.042557001
0.034344003 0.056892 0.049405999
0.029498002 0.062391002 0.055500001
0.026313001 0.058573999 0.053750001
0.038577002 0.050136998 0.034060001
0.03929 0.049589999 0.041740999
0.036965005 0.049435001 0.050974999
0.029209001 0.051065002 0.052999999
0.012257003 0.054568 0.054145001
0.0083272029 0.054170001 0.055847999
0.011462003 0.049295001 0.054843999
0.0092929024 0.050618999 0.056150001
0.035376005 0.068256997 0.061450999
0.032788005 0.069958001 0.069724999
0.026886001 0.063322 0.062822998
0.025228003 0.066786997 0.071037002
0.022643002 0.060568001 0.060857002
0.020109003 0.061558001 0.067000002
0.021032004 0.071278997 0.078199998
0.037802003 0.045145001 0.062116001
0.037964005 0.039512999 0.065472998
0.033413004 0.037420001 0.067249998
0.018701004 0.065008 0.072701998
0.018731002 0.059165001 0.061450001
0.019221004 0.061478999 0.067500003
0.0038257025 0.054113999 0.057411
0.017735004 0.070653997 0.079222001
0.011110003 0.044679999 0.062472999
0.010414002 0.042257998 0.067249998
0.013160002 0.040514998 0.066389002
0.011958003 0.038502 0.068359002
0.0076070027 0.047479998 0.061381001
0.0081576025 0.043549001 0.068558998
0.008588803 0.039829999 0.070928998
-0.019734999 0.18375 0.016625
-0.018867999 0.17471001 0.015198001
-0.0091036987 0.16264001 0.015944
-0.0088071991 0.16069999 0.015977001
-0.015263999 0.16708 0.013251001
-0.011251999 0.16098 0.014292001
-0.023739001 0.184 0.013986001
-0.023349 0.17699 0.011633001
-0.021457 0.16988 0.0091029005
-0.0096246991 0.18273 0.025562
-0.0094383992 0.18254 0.027249999
-0.0089652995 0.17948 0.025736
-0.0051153987 0.17589 0.031215999
-0.014942999 0.18449999 0.020399
-0.014565999 0.17645 0.021338999
-0.010155999 0.17234001 0.027124999
-0.0023574983 0.1733 0.039390001
-0.0078102993 0.16406 0.022876
-0.0049291984 0.16651 0.031597
-0.0037989991 0.15911999 0.022600001
-0.0012671987 0.15767001 0.030371999
-0.012382999 0.16848999 0.021158
-0.010219999 0.17120001 0.027000001
-0.00074957818 0.16813 0.041719001
-0.00015190789 0.16748001 0.048250001
-7.2626368e-05 0.16147 0.037250001
-0.0085672969 0.15783 0.066428997
-0.0059979968 0.15839 0.071284004
-0.017791996 0.16288 0.065978996
-0.015759997 0.16384 0.071622998
-0.013566997 0.16051 0.066068001
-0.011831997 0.16049001 0.073307
-0.019240996 0.16204 0.077
-0.014949996 0.15851 0.077179
-0.037943996 0.17286 0.073691003
-0.039174996 0.17220999 0.077550001
-0.025021996 0.16586 0.065921001
-0.024724996 0.16784 0.072094999
-0.030915996 0.16808 0.066
-0.032044996 0.17050999 0.073448002
-0.025937997 0.16434 0.077770002
-0.021298997 0.16039 0.077892996
-0.034565996 0.169 0.078211002
-0.00071028847 0.15131 0.034667
-0.047452997 0.17353 0.066117004
-0.045383997 0.17612 0.071985997
-0.055025995 0.182 0.069250003
-0.054644994 0.17802 0.064992003
-0.051987994 0.17983 0.069935001
-0.044399995 0.17516001 0.077930003
